-8.76687 1.72141 -4.71769
-8.22388 0.515085 -4.32473
-4.26936 1.08576 2.28207
-7.20888 1.76641 -0.394166
-3.80109 0.864542 -6.20424
-3.63535 1.8504 -4.25736
-5.9856 -3.14802 -1.56843
-4.95423 1.5545 -0.478891
-5.97675 -0.524124 1.67284
-4.41714 -2.78082 1.23042
-3.89007 1.46227 -6.11816
-5.32607 -3.1342 0.509095
-3.84143 1.4323 1.58732
-7.45933 0.348047 1.59161
-4.83611 -2.47844 1.47429
-6.16123 1.85567 -3.83448
-6.46116 -4.0282 1.8144
-5.85231 -1.83198 1.54338
-6.77179 1.04856 0.633013
-5.0712 0.696137 -7.52479
-6.75301 1.55577 -7.29329
-6.61306 1.80807 -5.59995
-6.35939 -3.18016 -3.81109
-10.977 0.259523 -11.3922
-5.9531 -1.93639 1.60125
-6.0407 -2.04968 1.65714
-4.01131 0.753456 -6.08983
-5.89854 -0.615695 1.61529
-2.7408 0.35925 1.46743
-2.71616 0.269874 1.44476
-2.71941 0.205043 1.4433
-5.27989 -2.76582 0.769105
-6.17714 -3.13036 -5.43715
-3.92174 1.49461 -6.15696
-5.65617 -2.95864 -0.435988
-6.01946 0.353417 1.73408
-2.85692 0.941213 1.57485
-2.85284 0.918973 1.53273
-7.21399 0.836078 2.21707
11.303 -2.04063 -5.43495
4.29458 -3.2685 -1.89083
-1.26487 -3.62976 -2.10328
6.10383 -2.9027 -2.7705
11.9545 -0.112242 -6.79494
5.23942 -4.21627 1.32479
9.27426 1.59848 -3.85666
20.5066 10.1693 14.0396
10.8395 2.24508 -2.07882
-1.02895 -3.1316 1.5176
3.89867 -3.50075 -2.81169
9.39592 -3.25306 -1.17113
11.3176 -1.00563 -6.36416
9.75008 1.89526 -4.11956
-4.57453 2.19405 2.03445
-3.7378 -2.38358 1.28201
4.98901 -3.30206 -1.89954
6.82599 -3.10067 -1.17717
-0.904033 1.94757 -2.03416
-4.64709 -1.43073 1.41026
-4.95183 -0.476923 1.64237
-6.40841 0.148895 0.604717
-3.11617 1.90736 -4.62493
-1.66657 -1.01936 1.33106
-2.72467 1.85546 -4.56926
-4.10285 -1.23081 1.9902
-10.7011 -2.63134 -1.29936
-9.45941 -2.71052 -4.59882
-7.74228 0.45283 -4.92975
-4.19983 -3.20035 1.09025
-5.3294 1.3166 0.773163
-4.82164 -1.98929 1.46747
-4.0663 0.950063 -6.14482
-6.80819 1.86925 -5.75406
-4.95497 -3.0015 -7.39381
-4.37589 1.63385 0.193884
-1.6385 -2.12799 1.24661
-0.619188 -1.81793 1.22372
-2.31109 2.006 -5.24699
1.05758 1.06037 1.44886
-5.34497 -3.21372 -7.04601
0.401712 -0.0853278 1.22294
-8.10016 -1.96139 -4.0997
1.36171 1.05835 1.32192
-3.85435 1.88932 -0.4956
0.39856 0.287305 1.28828
1.18525 1.23255 1.3758
-6.80647 -2.97285 -5.91624
-6.25792 -3.12011 -5.92748
-3.34579 1.96106 -1.43414
-3.18453 1.92455 -1.11198
0.362681 0.863376 1.35607
-1.59236 -2.33699 1.20829
-0.387206 -2.1924 0.46205
-2.22609 1.79361 1.18085
-0.517247 -2.22266 1.1301
0.429779 0.243413 1.23123
-7.62661 -0.35638 -4.20641
-2.75514 0.711315 1.49827
-1.66837 -0.377742 1.34992
2.17694 1.16123 0.467205
3.16064 1.35482 0.9788
3.63027 -0.863726 0.800245
3.45343 0.775466 0.693815
2.72705 1.09062 1.05718
3.06267 1.28309 0.895609
3.17913 1.02529 0.834665
3.55685 1.14134 0.775406
-4.35481 -2.54032 -3.47098
2.60464 -0.577031 0.953057
3.33079 0.868372 0.917834
-0.836161 1.90605 -2.44981
0.621128 -2.14819 0.970366
2.5805 0.0474163 1.00658
3.13228 0.96535 0.888845
-7.10244 -2.43452 -3.70337
-2.72536 2.09168 -1.10225
-4.41324 -2.41994 0.907818
1.48593 0.301422 1.17668
-11.0076 -1.81268 -3.84306
-8.38047 -1.33881 -6.21407
-5.20976 -2.50849 -4.6013
-1.21523 -2.70551 -0.259889
-8.37081 1.8681 -4.08042
-3.3911 -2.9167 -6.18881
-3.4831 1.95846 -4.66246
-8.08192 -2.40019 -6.67231
-0.70654 1.35716 1.03438
-7.35348 -1.27992 -7.07292
-8.44926 -2.05083 -9.78121
-0.621323 -2.22934 1.2297
-0.613823 -1.16855 1.26126
-4.85529 -3.18394 -4.23366
-9.86934 -2.27887 -8.03815
-5.67312 -3.21258 1.67682
-10.0239 -3.4274 -5.94592
-10.7742 -3.08348 -10.123
-5.12988 -2.91269 0.760616
-7.85283 -2.01541 -0.427242
-8.41999 -2.15083 -0.546815
-7.94027 0.415051 -3.96205
-8.51244 1.15837 -3.06844
-4.78496 0.750803 -7.09615
-4.90997 0.408128 1.62963
-5.38351 -2.84956 -4.03029
-5.8396 2.05569 -3.24461
-6.17021 1.95356 -3.59843
-6.34501 0.955088 1.6919
-5.91038 1.85272 -4.93774
-5.23783 1.68151 -0.212356
7.34833 -3.27733 -0.902701
2.17025 -2.95094 1.47636
5.3326 2.11663 -1.76954
6.17394 -3.35319 -1.90236
8.8305 -2.8235 5.85055
-14.2498 -15.6264 17.3805
8.04348 1.28656 1.35728
11.1155 -0.759913 0.126726
2.99364 -1.73862 1.88746
4.22236 -0.16581 1.8252
6.54609 2.02291 -4.45444
6.31514 1.99505 -4.00534
11.9032 -1.56485 -2.55732
12.1588 1.70259 -2.43955
17.8744 -1.00318 1.43571
11.7656 -1.55423 -5.24714
18.1875 -2.03249 3.26304
9.25244 -2.75121 0.8711
12.1572 0.959827 -2.41306
11.7949 -1.91014 -4.77949
2.49121 -3.09904 -3.27954
11.7603 1.37264 0.174229
3.84069 2.20287 0.729473
0.947065 2.12623 -2.44005
-1.42922 -3.16412 -0.132904
1.39071 -3.29432 -0.13835
5.8708 2.05003 -3.95037
18.3503 -1.57868 3.45074
4.23627 2.03157 -3.13691
11.0022 1.44392 0.72301
11.1734 1.20652 1.39161
8.86517 1.90952 -2.40732
12.0319 0.268661 -2.56657
7.77053 2.0136 -2.51005
14.101 0.919984 -0.675794
9.08972 2.01253 -1.85415
9.45128 2.00884 -2.16403
12.2255 0.958391 -2.23689
3.1462 2.07618 -3.27174
6.52101 1.97781 -3.25272
11.9211 1.79847 -1.67356
12.0087 1.66444 -1.41153
10.3799 1.72709 -2.56731
13.8741 1.1 -0.976815
14.653 1.15704 -0.715683
16.5978 -3.46587 2.45295
18.3241 -1.07855 3.41986
18.3905 -3.07261 3.53768
9.78855 -3.25031 0.492678
11.9462 1.79201 -4.33256
10.8144 -3.31932 0.411318
18.1816 0.667543 3.1948
10.1684 1.9062 -1.2805
11.4941 -2.1508 -0.550317
12.0285 1.64529 -2.4158
-2.28854 2.14663 1.86799
4.48826 -2.30791 0.128297
6.20163 -3.19158 0.713914
1.38526 -0.98721 1.18899
5.40993 -0.729708 1.65777
0.592688 -2.88754 -0.276605
6.2844 2.09262 -1.67712
-1.02963 0.124313 1.64207
0.962725 2.12403 -0.301513
-1.03462 2.13118 1.70353
-8.43548 -2.1367 -12.4888
-4.00453 1.20773 -6.01847
-5.98832 1.1758 1.7556
-3.82516 0.0881142 1.54742
-11.076 2.49341 1.26553
-7.90092 2.11233 -3.87556
-8.62484 -2.09972 -6.23928
-9.91565 0.237956 -11.9003
-5.12293 -3.09667 -8.15182
-3.09692 -0.983895 1.30714
-11.7254 -3.45969 -10.77
-5.97155 -1.40887 -1.20114
-7.77135 1.90509 -1.17603
-10.276 -3.24356 -3.62874
-4.56914 1.71461 1.98865
-8.68189 -1.63999 -6.9271
-8.02947 1.82991 -6.14785
-8.22726 0.844173 -3.04414
-7.20347 1.77996 -1.12802
-8.64464 0.327766 -1.09615
-3.84007 0.246218 1.56273
-3.82039 -0.596805 1.52119
-3.82916 -0.657359 1.52579
-3.88336 -0.448319 1.60469
-8.14721 0.441519 -3.99092
-8.66439 -2.57016 0.202003
-6.00391 -3.16742 -1.47796
-5.21457 -3.34481 0.0513421
-5.22119 -2.98415 -1.61179
-1.6914 -0.312344 1.38383
-4.97397 -2.96144 -0.490804
-2.24504 0.936966 1.49616
-4.61522 1.69651 -3.43253
-3.61455 -0.382033 -0.0114878
-5.85242 -0.915018 0.993981
-4.28237 -2.26758 2.83212
-11.2266 -2.63535 -4.45058
-4.63134 -0.221981 -2.74736
-6.7297 1.82261 -3.59589
-7.52626 -1.5585 -4.1006
-3.54814 1.09671 -6.35173
-4.43816 -3.05245 -3.32524
-3.66265 -2.83649 -1.17058
-4.28944 0.990342 -6.02596
-4.52356 -3.02658 -4.15633
-4.71545 -3.001 -5.45581
-0.730701 1.57305 1.49076
-2.57586 -0.960979 1.2654
-2.67515 -0.495343 1.38369
0.40921 -0.676146 1.24971
-9.79151 -1.79058 -11.1392
-4.82598 0.414228 -6.59654
-3.48991 1.94212 -4.96679
-3.95471 -2.84918 -2.90439
-3.99611 1.96083 -1.89718
-3.5925 -3.07253 -0.366503
0.516906 1.00556 1.45343
0.360855 0.976529 1.3776
-3.9991 2.04624 -1.68242
-3.90523 -2.88631 -2.2975
-8.14439 1.07466 -5.05218
-5.00801 0.381945 -6.76689
0.391859 0.34873 1.29574
0.421797 -0.681228 1.23225
0.404539 1.18597 1.31202
-4.07187 0.632707 -6.49862
-7.59061 -2.90198 -7.15761
-2.71126 -2.17801 1.32759
-3.50243 -3.0359 -5.57377
-1.14705 1.26096 2.24503
-2.86145 -2.80482 -4.14767
-11.5743 -2.42862 -3.89204
-5.7916 -2.43434 0.49021
0.395094 0.41159 1.294
-10.3846 -1.81474 -10.4964
-4.23793 1.78856 0.745877
-4.46132 -2.95718 -4.61925
1.42312 1.02503 1.30388
-4.59466 1.92117 -0.842074
-5.92181 2.24847 -6.7799
-4.60337 -2.98012 -1.64912
-5.73909 2.20098 -0.657457
-5.08955 -2.93898 -1.65052
-9.75207 1.52049 2.64407
0.661126 -0.496852 -0.0641806
4.61726 -0.356722 0.922425
4.61565 -0.401341 0.93473
-11.3777 -1.8014 -1.70052
3.60643 -0.376489 0.944689
0.652384 -2.39089 0.849136
-5.26797 -1.15722 -2.49489
-5.66314 1.31414 0.482882
3.00731 1.0141 0.982192
-0.0533961 1.96462 -2.03903
0.748141 1.50131 2.54577
-0.745301 -2.83156 -1.92067
-0.0260022 1.94328 -1.22462
1.4944 -1.29433 1.09462
-10.623 2.09395 5.74744
1.4973 -0.290908 1.10999
5.65647 0.39589 0.885207
2.41301 -2.28924 0.395006
3.63518 -2.24347 0.797508
5.63114 -1.87437 0.889403
1.91699 1.96966 1.60044
2.34409 1.59965 2.05039
-1.62032 -2.48764 -1.17928
-1.4369 1.74269 0.819748
0.488003 -2.31256 1.08921
2.54915 -0.940537 1.04911
2.61956 0.806424 1.17451
-4.86566 -0.788269 1.56308
-8.64661 -1.87896 -6.17984
-3.68401 -1.45857 1.38497
-4.85865 -1.8756 1.50966
-8.68453 1.91764 -3.49463
-3.14387 1.89073 -5.14438
-3.39646 1.93805 -4.67739
-3.36011 1.85998 -4.06223
-4.05585 0.703265 -6.57648
-4.78383 -2.58018 1.42822
-4.43323 -2.78262 1.24259
-1.84028 0.991181 1.54456
-3.62325 -0.95026 1.3633
-7.28453 -1.28937 0.605636
-7.84844 0.503086 -7.72091
-10.6066 -3.51772 -8.6167
-5.94145 1.69493 0.661446
-5.82628 -0.81422 0.207658
-0.536139 -0.937724 1.1996
-1.66489 -0.0413682 1.3465
-0.724058 0.982684 1.41214
-3.6084 0.830707 -6.07372
-2.19231 1.82051 -3.22737
-0.666147 0.307444 1.32628
-5.36517 1.88257 -6.66747
-0.620292 -0.710521 0.625533
-6.06995 -2.9707 -7.90157
-4.26425 -2.96337 1.40408
-1.71608 1.13237 1.45503
-9.37305 -3.43578 -6.62622
-5.10534 1.90921 -1.49758
-3.73095 -2.22227 1.38553
-2.92054 1.20536 1.6439
-1.70316 1.27822 1.44684
-7.9822 -2.10038 -3.88711
-2.73489 0.519983 1.46697
-8.66697 1.67424 -3.72175
-5.36191 -0.248045 -2.9828
-9.87606 -3.28686 -1.76091
-0.654652 0.261641 1.35283
-0.640105 0.188472 1.33026
-0.739194 -1.2364 1.98517
-3.7546 0.686096 -6.44403
-4.30353 -3.06685 -6.82674
-4.19874 -3.18841 0.359448
-4.35197 1.86611 -4.12834
-9.2609 1.8885 -1.26376
-4.20746 -2.94293 -0.123807
-5.04222 -3.07303 -6.86479
-2.66763 -1.81137 1.30604
-3.83747 -2.53581 -0.714694
-8.22214 -2.08112 -2.62219
-8.2026 -2.06485 -2.30189
-0.629021 0.359058 1.31638
-4.3804 -3.12563 -2.01836
-0.654633 -0.110976 1.33773
-6.72772 1.24365 -0.857822
-8.08709 -1.87557 -2.31756
-4.62522 -2.90743 -6.1224
-8.82035 -2.87999 -2.20076
-11.1177 -3.23756 -5.8797
-15.2439 -3.19686 -3.77117
-11.0104 -3.21463 -5.27375
-7.91663 -1.95361 -2.24408
-4.08484 -2.78164 -4.7894
-20.0922 1.79816 2.55794
-0.628625 -0.421541 1.29897
-6.11525 1.95939 -0.979204
-8.06298 -0.338676 -4.31747
-7.56669 -2.06815 -10.2357
-8.92159 -1.45414 -9.50147
-12.5338 -3.03462 -11.713
-5.09871 2.02847 -2.21428
-11.7815 -3.53569 -11.9251
-6.5663 1.14544 0.762807
-9.66601 -2.22104 -4.96633
-10.6649 -2.39863 -8.90657
-3.61927 -2.05619 1.32319
-8.03546 1.18123 0.248168
-6.17938 0.744937 1.81505
-9.14713 -3.10291 -0.143802
-3.91081 1.06412 -6.31863
-10.5626 -2.82327 -3.19173
-7.64458 1.0734 0.640094
-10.1122 -2.39645 -3.74185
-8.86065 0.930491 -2.52955
-9.40967 -2.25493 -11.1599
-7.98378 0.552951 -4.27001
-7.99056 -2.15507 -1.42099
-9.88465 -2.72965 -2.50333
-7.98109 -2.66691 -0.0116228
-9.21781 -1.96666 -9.20597
-6.57244 1.15394 -0.123855
-5.07357 1.85144 -3.58429
-8.35824 -1.55165 -6.43184
-11.0113 -3.62908 -11.5333
-8.77425 -2.21194 -8.10279
-7.51735 -2.30869 -7.26793
-6.67616 -2.25339 -3.3012
-5.28345 -2.69575 -0.140688
-5.43216 1.77709 -6.55085
-2.47867 1.92525 -3.2476
0.402863 -0.62695 1.25519
-0.646719 0.271986 1.3287
0.450323 0.468046 1.22226
-1.67726 -0.144105 1.36404
-1.90289 1.62933 1.37983
-8.53078 -1.38463 -10.2685
-6.12397 -0.562545 1.68921
-7.72032 0.947678 -2.97422
-6.66828 -0.411212 0.439963
-3.8651 1.3051 1.61357
-9.40786 -1.7794 -9.83432
-3.89346 1.30371 -6.05754
-3.3253 -2.59835 0.765756
-0.598841 -1.45869 1.22738
-6.23292 -2.00218 -4.57847
-11.3483 -1.83976 -12.7707
-1.6756 0.242748 1.37177
-7.23117 2.02444 2.63847
-4.01135 -0.897362 1.03603
-5.0079 0.316904 -6.74824
-9.43549 -1.90129 -9.29078
-9.18344 1.31697 1.67497
-5.22781 -0.767536 0.280881
-7.39613 1.40713 -4.04969
-2.73368 -0.213954 1.43789
-9.52354 1.37387 -2.34846
-5.89286 -1.34909 -1.50504
-7.11372 1.42987 1.37358
-8.43244 0.6717 -3.1102
-7.8717 -0.0243007 -6.38131
-7.03509 -1.50878 -3.29467
-2.72892 -0.435626 1.42731
-3.86869 0.505079 1.60301
-5.18251 -3.5469 -9.12023
-6.01975 1.24915 0.373679
-5.89617 -3.14815 -1.2818
-7.1684 -2.33245 -4.31509
-13.6677 1.72771 1.00983
-9.37835 -3.56165 -6.55947
-6.62556 -3.12948 -9.59249
-6.01825 -3.01877 -3.60527
-6.51353 -3.21464 1.10061
-2.69695 -1.03549 1.37179
-8.92969 -1.9299 -10.7012
11.8919 -0.275549 -0.930019
11.7884 -1.79151 -2.37356
9.82171 0.729091 -0.321819
-8.16142 -3.94706 18.0475
6.08926 0.474763 -2.49969
7.56979 0.135556 2.98689
5.10822 -1.20563 -2.02359
5.93729 -0.927706 -2.35494
-2.74815 1.49269 1.4829
-1.84517 0.962467 1.55083
-8.52899 1.88929 -3.72998
-7.26814 -2.0465 -0.754519
0.408535 -0.677347 0.488871
-4.72755 0.586008 1.54344
-3.84155 -0.814502 1.08413
-1.42044 -0.879396 1.17066
1.52913 -1.85833 1.0413
1.48254 -0.338913 1.15861
-3.93943 2.12444 -1.15182
-1.68664 -2.87279 1.23917
2.56695 1.22396 1.02583
2.44336 0.880872 1.26529
-6.81577 3.10561 2.56622
2.57996 0.383327 1.01109
-7.98267 -2.42345 -3.58487
-3.76857 -2.74814 -3.2892
-4.12119 -2.56688 -2.08713
-4.4389 -2.66999 -2.18503
-10.8634 -2.44762 -5.7961
-9.03984 -2.09866 -4.36684
-5.9175 0.0682302 1.66094
-9.87927 -3.39558 -7.30167
-7.73899 0.579292 -2.99126
-5.08165 1.48624 -6.04034
-1.71274 0.526341 1.43478
-4.67198 0.304672 -6.96805
-3.32431 1.84035 -4.20835
-0.610146 -1.30432 1.2455
-2.48606 1.86043 -5.34823
-6.35796 0.790017 -7.12714
-1.65203 -2.00841 1.2766
-0.665297 1.24285 1.3902
-2.8283 1.56065 1.29087
-9.16682 -2.74955 -5.9295
-9.96947 -2.33248 -7.92948
-5.85395 0.17134 1.6312
-5.26754 1.89235 -0.777339
-7.33226 -2.07098 -8.66469
-4.78382 -0.521361 1.52094
-1.08056 -0.979221 1.26508
-5.36039 1.75019 2.32295
-8.4679 1.53699 3.18907
-8.10618 1.05692 1.84668
3.58211 -1.60025 0.937248
7.65836 -2.2001 0.615073
7.75977 0.521992 0.898771
0.676264 2.02782 -1.17036
2.32476 1.71782 0.933612
0.0808706 -2.63986 -2.84294
6.79382 1.57654 0.981378
1.00884 1.95501 -3.01215
0.365969 2.11542 0.995869
0.742782 2.10984 2.32594
0.55412 2.47079 2.47137
4.77453 1.2743 1.87177
1.87788 2.06355 1.41922
3.60909 0.574047 0.977317
-9.21561 -1.91527 -5.48415
-3.85636 0.351651 1.58269
-7.4955 -1.47726 -4.65702
-9.02215 -1.98013 -5.84202
-10.489 -2.42792 -5.01029
-2.74901 1.29838 1.50111
-9.32262 -3.39177 -3.36866
-10.8516 -3.3632 -10.7744
-9.02551 -1.48749 -8.96441
-5.05548 -2.96927 -8.66678
-8.40405 -1.78234 -6.40913
-4.83416 1.87789 -3.45085
-5.27967 1.45706 1.16535
-5.19468 1.86234 -3.0838
-4.4428 1.91539 -3.86246
-7.23166 1.99125 -1.59984
-7.22189 -2.26188 1.37443
-11.729 -3.17831 -6.01684
-9.42481 -3.14366 -0.879227
-5.33621 1.50269 0.778946
6.68075 -0.323415 0.800942
6.35126 1.20697 1.6197
7.74084 -0.898413 0.982194
2.37149 1.84041 -2.56895
-0.12555 -3.06143 -1.90814
3.00667 1.21748 1.10021
5.65893 -0.216024 0.832912
6.67137 -1.53847 0.809997
6.70488 0.423439 0.954436
2.20148 -0.622484 1.49205
7.19003 -3.03405 5.37357
10.4215 1.6642 0.106732
-1.62399 -2.42317 1.15956
0.021718 -3.01243 -1.6502
2.82427 2.07407 1.57056
1.00734 2.07513 -0.81094
0.843551 -3.02023 -0.797229
2.8942 1.91319 0.628033
6.70462 0.495818 0.990992
5.60936 -1.19479 0.984485
1.3153 -2.2271 1.21231
-7.44113 -0.257147 0.531678
-5.8898 -0.354112 1.59719
5.63899 -1.28465 0.819495
-7.49224 -0.487579 0.675443
-3.04364 0.751407 1.62038
-7.19298 1.61083 -4.65867
-10.2947 -1.87107 -11.8821
-8.2919 -1.53329 -5.52709
-4.87189 -0.121533 1.58388
-0.592983 -1.55418 1.22381
-6.17723 -1.70499 -0.959288
-6.57957 1.13486 0.597057
-4.37258 -3.27513 0.0286046
-7.46447 1.28646 1.43845
2.2943 1.11811 0.930856
-4.52026 -3.23798 -5.6911
-5.04066 1.9103 -1.994
-0.652873 0.729173 1.37164
-4.62631 2.14632 4.15267
3.61238 -0.199299 0.9288
4.62546 0.291177 0.946593
4.62014 0.179871 0.949778
-5.68256 1.94189 4.87048
5.63571 0.426798 1.00543
6.67303 -0.820572 0.983884
2.61864 1.48476 1.02057
-1.54555 1.93281 -1.49029
0.60211 1.95082 -0.555231
0.116874 2.18464 2.56544
1.87625 1.99413 1.9436
5.63514 -1.45712 0.799759
6.65667 -1.62032 0.711938
6.68164 -0.628632 0.804574
2.82141 -2.45582 0.587588
5.67228 1.21298 0.958881
0.554937 1.89317 -2.48705
6.66083 -1.36102 0.710752
-3.70727 -3.07088 -1.64804
0.0626116 2.05072 -0.964712
-3.62234 -2.37325 1.30492
-4.90172 0.588774 1.6524
-3.74857 1.56328 -6.16889
-4.82257 1.83589 -2.85057
-5.83265 1.50903 0.587335
-4.92925 -0.214003 -3.04789
-10.0914 -2.81946 -1.76576
-7.56115 -1.22002 -7.70966
-3.74385 -2.741 -3.45908
-2.68932 -1.73099 1.34557
-10.0985 -3.47632 -5.98806
3.17336 1.2011 0.938418
3.61176 -0.314222 0.924338
0.156864 1.89742 -2.47368
-4.61695 -3.01657 -4.76456
-14.0177 -0.0597754 8.74791
-30.7178 3.91188 6.26789
3.58431 -0.576456 0.979403
3.61006 -0.658505 0.899509
2.62921 -1.35809 0.872509
3.07345 0.931544 0.844347
3.6164 -1.43584 0.866463
3.61085 0.356337 0.962128
1.62399 -2.28846 0.905284
-4.93069 1.07146 1.68753
-8.25765 -1.99881 -9.8283
-4.29413 1.70809 0.604378
-3.45473 -2.71333 -0.0700704
-4.07688 0.870541 1.45568
-6.64661 -3.30439 -5.69148
-6.10428 -3.13339 -4.20949
-5.49916 2.30234 -6.5611
-8.95438 -1.78532 -6.4989
-7.58361 1.15362 1.64898
-3.02345 -1.02511 1.4105
-4.93052 0.418253 -6.92072
1.3449 0.9348 1.08929
1.48053 -1.60932 1.13213
-6.53304 -2.69093 0.623417
-1.67057 -0.487672 1.34381
-8.85677 -1.98566 -8.69342
-9.75649 0.331529 -11.6976
-10.4173 -2.52198 -11.1341
-4.70845 -3.19145 0.616626
-8.05062 -0.250178 -5.08461
-4.39226 -1.12736 -0.587781
-11.1147 -2.61579 -4.06749
-9.32696 -2.32266 -4.81479
-9.34789 -3.41231 -11.1202
-6.85583 -3.06871 -5.14726
-10.0203 -2.75169 -2.35012
-4.26896 -0.256005 -1.35742
-9.12536 2.21825 -0.140671
-9.16345 -1.79761 -5.44022
-5.88233 -1.30652 -2.14754
-8.71817 -2.53792 -0.875947
-7.6972 -1.98157 -5.65064
-4.30821 -3.17615 -0.807902
-4.16712 0.476844 -6.48728
1.00631 -0.724246 0.70885
-6.62622 -0.722796 -2.89658
-8.85517 -1.77275 -6.30442
-6.13981 1.7776 1.3279
-7.63139 1.32384 -4.12338
-8.69589 -2.27812 -4.24174
-0.653212 1.16676 1.37431
-4.66142 -3.25737 0.189696
-10.4487 -2.46102 -4.05778
-5.94291 1.95296 -1.00343
-1.21698 -0.0815893 -1.62654
-7.70665 2.09066 -4.10384
-4.03285 0.973817 -6.07447
-3.32375 -3.25366 1.09246
-3.7186 -2.75736 -0.465609
-1.16933 0.940951 1.41079
-7.84447 0.157192 -6.32366
-4.83761 -1.78779 1.50335
-7.3213 -2.19459 0.569344
-4.9385 0.0698908 1.66365
-9.9634 0.582837 -3.34819
-1.62996 -1.80205 1.25961
-2.77356 0.456899 1.50593
-1.68266 -0.734114 1.35528
-6.20599 1.30128 0.534125
-3.61815 -2.96398 -7.41728
-5.29915 -3.0319 -5.30194
-8.48432 0.458014 -11.2196
-7.25725 1.42891 1.75824
-5.18095 -2.87526 -2.81342
-6.80478 -3.03434 -5.84876
-3.89672 -0.638651 1.52908
-3.81921 -0.0321697 1.53113
-4.77106 1.35101 1.52099
2.96426 1.03222 0.862267
-2.94709 -2.89217 -2.43177
-0.393035 -2.08291 1.02437
-2.32819 1.9319 -3.21068
0.319006 -2.2605 0.510347
-7.65878 0.674482 -7.63719
1.58065 -1.95398 0.969463
-1.74891 -2.74778 -5.76612
-2.91195 -2.56351 -1.38715
-2.61086 -2.64252 -4.79558
-6.8306 -1.83043 -0.340995
-0.643055 0.682371 1.34629
-7.06878 -0.791326 0.43956
-14.4129 3.07469 0.114059
-5.18444 2.0167 5.21043
3.33793 1.36521 0.88772
3.21834 1.09639 1.17214
3.55394 1.35144 1.15277
-8.50511 -2.00222 -11.0532
-9.58106 -2.15291 -8.62527
-8.07828 0.788135 -5.01579
-4.33344 1.09677 2.22778
-9.0983 -2.17243 -8.32885
-5.9176 0.827745 -6.75957
-8.02999 -2.50552 -5.35133
-9.17853 -2.31624 -8.84317
-5.52084 2.06586 0.00630581
-4.51442 -3.7117 2.14431
-2.75699 1.19052 1.51288
-8.85387 -2.43558 -5.53088
-0.626964 -0.322636 1.29683
-12.9705 2.84636 -0.508592
-10.7476 -2.33983 -3.03658
-5.01028 -3.18577 -5.55668
-10.7441 -2.82206 -3.56482
-5.36097 -1.26157 -1.21462
-2.67142 -1.5407 1.32937
-2.68027 1.22219 1.45718
-6.3101 2.26113 0.720716
-8.7335 -2.44025 -6.35052
-6.593 -2.03482 -5.00064
1.04177 -0.901989 1.05751
-2.71664 -2.44331 -2.30274
-13.9409 3.305 10.5674
-16.5566 1.30482 4.80125
-7.9408 1.18946 -4.95075
-4.64164 0.899477 -0.0676459
-7.8777 -0.262975 -3.68144
-6.64084 -2.73779 0.562161
-1.59454 -2.23015 1.2119
-0.627901 -0.0315277 1.30577
-20.1522 2.45571 4.31682
-8.99965 -2.57356 -1.2253
-8.09029 0.964684 2.03202
-9.79755 -2.72849 -7.58708
-5.59173 -3.0506 -2.88476
-3.82764 0.205444 1.53968
-9.22264 -3.33782 -3.4102
-4.65612 -3.17962 -0.000481248
-0.62393 -0.463386 1.2924
-2.67699 -1.60127 1.33703
-239.203 95.3219 91.3982
-7.54332 0.20094 1.80318
-11.0285 -2.78357 -5.23511
-1.68234 -1.23316 1.34242
-2.79655 1.15525 1.54793
-2.40067 1.87375 -4.61694
-5.52261 0.375065 -7.3982
-2.95119 1.96537 2.16967
-2.80026 1.49159 1.56151
1.04116 -0.319484 -0.765829
5.63142 -2.24413 0.726835
5.55392 -2.29006 1.06344
5.84998 -0.832079 0.758355
6.6478 -2.27926 0.647875
-2.87469 2.16609 -0.987041
3.08103 1.92649 0.660226
2.84326 1.4254 0.989914
-2.77828 4.85199 -2.66276
-0.931987 2.03252 -1.10482
2.03918 1.34163 3.1539
0.0465324 1.98828 -2.42958
-0.322107 -2.57172 -1.64172
1.95783 1.12255 1.35571
2.59108 -1.87908 0.915635
2.59298 0.89104 1.04302
-0.463549 -2.76875 1.06685
0.107746 -2.18179 0.410354
2.99862 1.05945 0.845674
-0.800949 1.92695 -3.7425
1.60948 1.30421 1.55126
-0.721592 1.58349 1.45198
-12.194 -2.55616 -4.45196
-0.658911 0.552739 1.36754
0.408657 -0.239232 1.26077
1.50161 -1.10871 1.57544
-13.2585 -3.22774 -6.41819
-3.8466 0.452501 1.57373
-6.73374 1.41653 -0.794381
-9.12363 -1.49082 -9.7047
-1.68629 0.146897 1.38947
-4.7129 -3.20959 0.605384
-8.97152 -1.96739 -6.05465
-2.79961 -1.17405 1.79638
-1.68375 -0.822546 1.35322
-7.46806 -2.23885 -7.19941
-2.63289 1.88677 -5.10575
-3.52623 -2.82417 1.23389
-5.90161 -3.10256 -1.67823
-7.65578 -2.35121 -6.62043
-5.77746 -3.15031 -2.80963
-6.23487 -3.07735 -6.78501
-6.35281 -1.41559 -2.00667
-8.22046 1.60476 -4.86176
-8.4326 -0.00714279 -11.1634
-8.02315 -2.09176 -7.78299
-4.03958 0.961406 -6.39975
0.876173 1.89921 1.45257
-3.58271 2.35718 -0.976343
1.02956 1.94291 -2.50629
-1.53594 2.19779 1.22789
5.09054 -1.59749 0.629131
-10.008 -3.62939 -1.06647
-10.7214 -2.79816 -0.696747
-6.74427 1.67092 -0.890079
1.49651 0.687408 1.18169
1.67609 1.30232 1.27599
-7.74768 1.87022 1.13611
1.41138 -0.999799 0.373959
2.5673 -0.523789 1.00309
-6.2872 2.36749 -2.8647
1.94694 -2.39304 0.573502
-9.54661 1.34192 1.68347
2.01688 -0.648399 0.357654
-12.4568 -2.09773 -3.0947
-3.7095 0.735229 -0.319
1.40588 1.35657 1.29888
3.58535 -1.15408 0.954527
3.58368 -2.02345 0.910434
-3.65512 -2.65053 -3.67416
-0.210819 2.07317 -0.112937
-0.59781 -1.70539 1.21074
-0.636006 -0.272755 1.31333
-9.25148 -2.11265 -9.28506
-6.35845 -0.990596 1.41872
-9.52411 -1.9569 -5.41076
-0.615818 -0.556321 1.28062
0.389336 0.599607 1.30974
-1.70228 0.679503 1.42696
-13.0893 -0.0694591 -11.8829
0.440038 -0.478243 1.19223
-7.36641 1.00114 1.59746
-1.71079 0.625085 1.43184
-8.52042 1.65714 -0.924675
0.41868 -0.391078 1.23479
-4.20029 -1.02689 -2.07838
-2.68766 -0.118097 1.40732
-2.27002 1.9937 -3.01889
-3.11396 -3.08431 -7.00696
18.7209 -3.78461 1.05853
11.9445 1.38022 -4.00142
13.9945 6.79261 10.8095
11.9802 -2.98566 -1.00824
19.2575 -3.40511 3.1033
17.8936 -1.98373 1.68347
10.266 -2.3908 -0.302385
12.6152 3.86322 2.60609
2.19928 6.42837 7.26601
10.8637 -0.330587 0.226208
8.82531 -1.21407 -2.29371
18.5299 -2.63444 2.85772
11.2721 -1.50696 -4.16229
18.2936 -3.05552 2.05606
7.2333 1.14696 0.152975
1.10799 -3.21562 1.4504
8.70177 -2.47056 0.65125
0.466517 -3.11525 -1.94566
9.82138 -2.90442 0.75736
9.84614 -2.38701 0.785108
5.1378 -1.21771 -0.281683
9.49715 1.12868 1.33427
-2.70772 -1.97967 1.3541
-1.71051 1.17421 1.44874
-5.1196 1.87855 -3.57838
-7.83763 1.07491 -4.92754
-5.01603 -3.05473 -0.240329
-6.33904 -1.77502 0.697289
-5.87348 0.445788 0.363984
-2.71268 -0.56345 1.40545
-14.103 4.42828 -11.1656
-11.2461 -3.35949 -11.1208
-5.55912 -1.32443 -0.742783
-6.93271 1.86745 -3.07281
-8.32606 -1.96049 -5.60786
-11.3601 -3.58947 -9.07667
-11.8862 2.60614 -1.07971
-11.6793 1.46389 -0.300526
-2.52937 1.8996 -4.50705
-1.74347 1.52114 1.50086
-6.31159 2.01826 5.32622
-4.49659 1.65258 0.439194
-4.82357 -2.27507 1.47597
-5.94687 -3.19829 -3.2637
-7.02215 0.318318 1.74238
-9.69618 -3.72058 -1.07365
-7.43564 0.0330894 -2.97173
-7.42366 1.79118 -0.0233468
-14.1003 1.10428 8.87072
-9.32854 -1.6984 -8.75731
-3.13849 1.9228 -3.8749
1.46041 -1.2598 1.19789
1.4676 -0.975329 1.1811
1.43982 -0.00898192 1.27274
-0.741267 1.59598 1.48365
-0.33423 -2.17242 0.44116
-3.75905 -3.07233 -6.9668
0.360001 1.26691 1.35221
1.48983 0.242424 1.14588
-2.19104 1.87491 -2.65457
-2.00059 -2.80475 1.1454
-3.88052 -2.74556 -2.43889
0.260253 2.14795 1.69132
5.64377 -1.6336 0.729598
3.60571 -1.66569 0.871514
1.50288 -1.15393 1.09546
0.667609 2.03077 -0.667245
1.61377 0.790113 1.0553
2.00374 1.65576 1.45877
-8.4215 1.22653 -2.92995
0.395219 2.1003 1.21975
1.90872 -2.12694 0.19947
6.65216 -1.97458 0.708678
5.63449 1.72284 1.14679
6.71953 1.66882 1.0178
4.6124 1.68411 1.02539
4.65369 -2.08484 0.716024
2.76758 2.1374 2.38104
6.03776 1.24129 1.64442
1.94924 -0.678821 0.592709
-5.72676 -2.23642 0.0603577
-4.41401 -2.73031 -0.387706
-6.5301 -0.302813 0.549775
-1.49632 -1.10153 0.0399261
-2.72473 -2.02903 1.32543
11.1189 1.34342 1.03254
3.89979 1.90084 -2.48472
10.9235 -3.21611 0.774523
11.1737 1.6908 1.11367
3.1422 1.98353 -3.30307
11.0161 -0.979483 0.891377
8.80402 -1.55039 0.910175
3.39093 2.04417 -2.47791
9.93836 -1.41881 1.00267
0.260213 -0.699072 1.30588
4.12421 1.33419 2.09824
-3.98325 -0.931419 1.54459
-2.01494 -0.0718285 1.58444
-3.5332 -2.25131 0.800862
-8.33697 1.36151 -2.9846
11.9556 1.6783 -2.94896
12.1406 0.459606 -1.27284
11.7377 -2.34255 -2.60367
-2.36534 -2.92563 0.447022
6.58735 1.2696 1.8036
10.3821 1.66861 -2.48167
6.64737 0.756952 1.41124
12.027 0.901916 -2.44628
6.25081 -2.99738 -1.35541
5.94306 -3.25243 -0.795705
11.0516 -0.483226 0.946443
2.34202 1.43685 1.30669
6.938 1.28736 2.02951
-6.48458 2.08749 -0.0544418
-5.17419 -2.86545 1.59385
-2.49095 1.37955 1.62805
10.9826 -0.0209295 0.751581
5.6442 -0.133779 0.947061
6.70083 -0.171283 0.942001
-1.00526 1.32897 1.6063
0.124794 2.08792 -3.61468
10.6771 1.90516 -0.77506
4.73483 -3.02163 -0.637758
6.66942 -1.22458 0.757918
6.67999 -0.499015 0.81472
2.10032 1.98646 -2.44072
2.15789 1.94135 -2.54113
5.7634 1.3353 2.25888
6.6867 0.0843913 0.796112
5.65968 0.312542 0.908054
-1.65754 -2.48358 -1.67291
4.61728 -0.086022 0.958459
2.57958 0.37667 1.03705
5.64162 -1.05724 0.835859
1.32047 2.10933 1.65022
1.45011 0.0545572 1.24669
1.48651 -0.584499 1.15424
-2.98714 -3.08001 -5.65806
-3.10361 2.0277 -1.64108
-2.21543 -3.12908 0.468094
-2.76832 1.93319 -1.32276
-2.42176 1.91091 -3.24518
1.2133 1.2312 1.28845
-2.7196 -0.691745 1.41061
-1.71512 0.190162 1.42512
-0.650217 0.513356 1.35378
-0.626873 -0.778006 1.2893
-8.37804 -2.32015 -5.85311
-5.05482 1.75245 -0.717432
-7.6244 0.911364 1.0509
-2.74711 0.0358575 1.46371
-7.52561 -1.585 -2.74573
-8.8463 0.554607 -3.42478
-5.212 -2.70257 -5.59821
-8.89255 -2.43442 -2.68436
-1.68346 -0.647445 1.36226
-0.631963 -0.726631 1.29471
-3.31239 1.84601 -4.21095
-4.92815 1.37475 -5.91051
-8.26126 -0.123066 2.13497
-9.87137 1.91451 -3.62689
-6.81896 -3.09167 -7.31697
-7.29963 -1.11247 1.44941
-2.19691 1.97345 -2.49709
-7.49497 -1.92146 1.57064
-8.61412 1.24491 -0.920747
-14.5136 2.09775 1.21189
9.30847 1.15867 1.52519
-6.51896 1.3855 -0.323877
-1.67251 0.416298 1.38472
-5.36753 0.590903 -7.0764
-4.71148 -2.70607 1.39076
-3.67182 0.868345 -6.38106
-6.58673 1.63933 0.637907
-0.651087 0.167521 1.34571
-0.646744 -0.61264 1.32394
-0.655444 0.590131 1.36217
-0.983181 -2.10084 0.398883
-2.17867 1.63723 1.40751
-0.658119 1.06269 1.74377
-3.59405 1.51887 -6.49005
-8.99233 -1.76095 -7.05268
-6.18334 -1.55312 1.67627
-8.47962 -3.2073 -1.17368
-3.06589 1.90204 -1.76227
-16.1116 2.71401 3.02529
-2.28218 -2.66282 1.03937
-2.76658 0.617843 1.49447
-0.606398 -1.38194 1.23464
-3.26339 -2.66309 -1.42076
-0.654622 0.313754 1.35533
0.475044 -1.70697 1.10465
0.436561 -1.45772 1.17225
-9.69355 -1.88885 -10.6908
-6.76585 1.30475 1.86635
-4.42592 -3.12846 -2.16386
-1.70969 -2.71041 1.03078
-7.96491 2.38976 -2.91117
-4.29206 -3.04273 -2.57074
-7.96168 -1.50475 -4.04408
-0.566389 1.06163 1.72527
-0.632837 0.449912 1.32852
0.046865 1.2229 1.98736
2.29903 0.969398 1.0008
-0.584148 -0.232186 1.27488
2.62346 -1.77532 0.87001
-2.49598 2.08764 -2.30941
-6.38089 -1.1351 -5.08149
2.56408 -1.63469 0.967178
3.93478 0.996179 1.00871
-1.51596 2.12807 0.542837
-3.88389 0.68187 1.57488
-2.11987 -1.12226 1.05047
-1.69034 0.266142 1.39895
-0.0329434 -0.415172 -0.28786
-3.51371 -0.0399192 1.36404
-7.57318 -0.515049 1.54137
-4.29126 -2.74586 0.201121
9.02185 -2.28158 -0.640113
12.1709 1.30257 0.790052
12.0967 0.48796 -2.42902
11.5415 -2.11286 -2.45459
18.2444 -2.53837 3.34552
18.3057 -0.563297 1.97462
9.76843 -2.97268 0.435874
4.01694 -2.5776 -3.58841
7.39387 -3.13854 -1.19902
11.8568 -3.37882 -1.17264
8.17597 -2.86354 -0.365192
11.1859 -3.14257 0.0313283
1.02859 -2.93419 -0.939906
8.84874 -1.11307 -1.00953
-8.7332 10.2534 2.43157
2.40928 -1.18249 1.24731
11.8021 1.62661 -3.54529
11.8317 0.513551 -3.92812
7.45152 0.314234 -4.49011
8.84964 -0.897884 -1.67116
8.85126 -1.63189 0.369004
6.05909 1.89611 1.04997
17.0772 -3.61473 -0.04399
5.32908 2.03242 -3.50507
8.84698 -1.88467 0.812699
17.8381 -2.89253 2.15841
11.6486 1.03616 -3.79085
18.108 -2.00948 1.82288
6.45335 2.22504 -0.153306
-4.49262 -2.69853 0.921538
-5.1988 1.24737 0.497575
-6.70852 1.76347 1.86004
2.58227 -1.06308 0.96613
3.42477 0.94794 0.783349
3.0686 1.25525 0.910223
3.60816 -0.526507 0.924589
2.59619 -1.32624 0.936278
1.48182 -0.425184 1.15241
-12.0731 2.64825 1.16194
-7.86156 1.81214 -2.92548
1.4708 -1.59598 1.09052
3.60111 -1.6292 0.907228
-10.7022 -3.13441 -3.90029
-5.31161 -1.09338 -1.17022
3.60286 -1.22051 0.901536
-2.13133 -1.94691 0.299447
-2.04398 -1.21445 1.01163
-1.47287 -2.70882 0.13458
-3.7285 2.49555 3.54208
-6.92903 2.5665 3.76712
3.64172 -0.43683 0.882862
-5.35585 -2.46858 1.28349
3.6079 -0.149372 0.949525
2.61148 -2.00181 0.877311
0.00853229 1.89652 -2.81612
3.61278 0.317224 0.959127
3.60809 -0.268671 0.937602
-0.315611 1.87201 -2.46516
-3.30434 3.86477 -4.73935
-1.41867 -2.83658 -2.16911
1.59605 -2.21659 0.947043
3.61601 -1.75891 0.84898
3.41537 0.877926 0.900137
-3.73555 -0.691656 0.727033
-10.5438 -3.26968 -7.07149
-19.9437 -3.17101 -5.19972
-10.4608 -1.69282 -5.38894
-0.952338 -0.231642 -0.943007
1.44209 -0.0546622 1.26152
-3.2279 1.04093 1.79794
-7.79788 -0.0984626 -4.60095
-1.04578 -1.91353 1.19265
-2.71908 -0.274149 0.944421
-3.97123 -1.65022 -3.38095
-9.58112 -2.00141 -4.98557
-2.72111 -0.341539 1.42706
-3.72797 -2.90587 -0.975446
-8.66219 -1.59628 -8.77337
-7.05835 -2.31598 -3.89497
0.445552 -0.863441 0.918308
-3.21368 -2.92845 -5.01692
-4.99988 1.69277 -6.12606
-3.24415 1.90309 -0.115251
-7.95899 0.429839 -8.1916
-3.50351 -3.0022 -5.96637
-3.80714 -0.132982 1.51257
-1.67696 0.340019 1.38652
0.398989 0.177357 1.2856
-10.3795 -3.48388 -7.52417
-8.93628 -1.43683 -8.93059
-9.72684 -1.9532 -9.98062
-9.52971 -1.92141 -8.65302
-5.11898 -2.91756 -1.63589
-3.87436 -2.9022 -1.71508
-4.44532 -2.86303 -5.94301
-5.27579 2.02163 -5.92449
-7.46319 -1.51014 -6.07923
3.59893 0.456107 1.00828
-1.86389 1.99946 1.37586
3.57365 0.85022 0.834913
-6.285 -2.14575 -2.60193
-9.95125 -2.18994 -0.224894
-7.01636 -1.90111 -1.12136
3.62037 -0.417784 0.906557
-0.768943 -2.27487 0.274992
-8.72089 -1.6168 -1.79483
-1.25506 -2.71136 -2.73137
3.60433 0.127795 0.984942
-6.23715 -0.12874 -3.2592
-9.52152 2.73645 4.34132
3.58553 -0.214303 1.00093
-0.984043 -2.66974 -1.4485
0.42815 0.536455 1.2474
-3.41809 -1.779 -0.265476
0.605828 -2.83842 0.10944
3.50746 1.11012 0.962816
1.09668 -2.84554 0.540715
2.49581 -0.987959 1.47304
5.64521 -0.643621 0.87516
1.27218 1.69676 1.29236
3.59813 -2.15854 0.861673
5.66912 1.03192 0.97366
0.851986 1.92836 -3.36227
-1.57064 -2.78214 -3.75236
-0.495666 1.97448 -1.41808
1.9301 1.36046 1.28404
2.40416 1.20261 1.23007
1.43518 0.991642 1.30982
-7.58589 -2.19398 -7.24917
-1.77145 1.84226 -2.68656
-9.57495 -1.97257 -8.18165
-5.35235 -2.93018 -1.22828
-0.684556 1.382 1.42096
-9.533 -1.82793 -7.57016
-5.68718 -1.22992 -2.25912
0.426327 -0.173772 1.22632
-7.1348 2.10319 -0.0679148
-4.85768 1.15744 1.62841
-2.20203 0.968824 1.48113
-4.16027 -2.89164 -3.49722
-10.0007 -2.312 -5.28815
-12.1248 -2.87009 -3.54846
-0.840189 1.9019 -2.03724
-1.32998 -2.77234 -2.4853
-3.34853 -2.68799 -2.09881
3.60796 0.803353 0.842598
3.61446 1.1063 0.982913
-5.49068 1.92635 -3.4758
1.58711 -1.17158 0.998022
-5.47975 -1.17274 1.39004
-0.840089 -1.21168 1.39326
2.55441 0.268857 1.07568
-10.744 2.53951 1.37964
2.59503 0.143324 0.979387
1.68155 1.50164 2.51187
-1.04199 -0.352107 -0.527215
0.414685 -0.297202 1.24436
7.77581 1.08748 1.07009
5.58919 -1.80574 0.976275
-0.000382662 -2.74997 -1.39887
8.16112 1.15334 1.36283
1.30399 -2.11473 1.22689
3.5957 0.047711 0.989323
0.280524 2.08182 2.24066
-8.63303 -2.30736 -0.150974
-6.2747 0.938864 1.80135
-6.26542 -1.02359 1.72409
1.78883 1.78587 2.21775
-5.06996 -1.33714 1.59038
-2.38384 -1.40757 1.71602
-8.46674 -1.93236 -0.708013
-8.59681 -2.00661 -6.92069
-10.0961 -1.83319 -8.86346
-7.96101 -1.82562 -5.53463
-7.64003 0.153792 -2.99636
-7.61615 -0.233818 -3.91755
-9.03509 -3.23356 -3.43392
1.92746 1.0803 1.26023
-2.94169 -2.84651 -4.1927
-2.4007 1.81638 0.588163
-8.40178 0.176769 -4.75013
-2.72909 -2.8444 -2.60847
0.436008 -1.23636 1.19453
-2.454 -2.80851 -1.80235
-12.0448 -2.87564 -1.70948
-6.53469 -1.80954 -4.63001
1.4903 -0.661525 1.12703
-10.9251 -3.27327 -6.55442
-5.24421 -1.19655 -1.32135
-4.12176 -3.0692 -1.1122
1.27645 1.59418 1.22058
1.26555 1.45201 -2.8436
1.12368 -2.32141 0.543799
1.87705 1.4072 1.09156
2.59049 -1.69872 0.915979
3.5995 0.223561 0.985332
3.02942 -0.672472 0.395034
-1.26225 -2.78592 -1.89114
-0.801392 -2.7446 -0.534658
8.83711 -0.833947 1.56246
11.7458 1.06226 0.146209
14.1347 -3.53561 -0.0694712
10.8041 -2.05655 0.301614
-3.33396 -2.48584 1.78323
-0.463958 -0.40289 0.523209
-2.17658 -2.49411 1.67072
4.94297 -3.31458 -1.84883
6.49335 1.77008 2.16625
6.23658 -2.47394 0.407061
-3.23965 1.56301 1.82665
14.2052 1.26269 -0.863204
8.67363 -3.1433 -1.34301
5.70974 -3.31244 -0.592122
9.49845 1.90948 -1.16609
5.74572 -3.02626 0.363007
1.15604 2.07028 -3.11353
2.82333 -3.2255 -3.14727
11.0691 1.7682 0.86367
10.9119 -1.73714 0.651216
8.91653 1.9797 1.86212
10.9034 -1.10574 3.39957
10.9915 -1.37749 0.859475
10.1153 -2.38929 -0.462207
2.3383 2.04225 1.45258
7.92079 -3.35651 -0.0768002
8.60063 1.9835 -3.71816
8.59922 2.3023 -2.42684
9.51657 1.75791 -2.51124
11.839 0.541494 -2.50757
-0.655384 -1.54946 1.20096
0.682958 -2.99284 0.790052
4.83703 -2.94403 0.287113
5.27363 2.18244 1.06024
10.86 1.86967 -0.305558
-1.03985 1.33588 1.60976
3.05393 -2.78971 0.118016
7.76405 0.413111 0.963698
10.9259 -1.86818 0.77036
7.76461 -0.0380597 1.30504
11.8466 -3.60127 0.697408
7.00971 -2.97086 1.25458
7.72438 -1.92874 0.937975
5.31661 -1.32575 -0.666261
5.72969 -0.724641 0.584097
-3.73347 -2.77333 1.30945
-7.3359 1.38619 1.55121
4.82076 -0.98915 0.887103
2.12047 1.11301 1.07678
0.876632 1.9458 -3.14884
0.52845 1.9127 -2.08598
0.322127 1.89174 -2.08107
-8.54107 -2.15588 -5.46513
-5.63331 2.07989 -3.60551
-0.875079 2.04563 -0.633544
-0.00494552 -2.69184 0.751931
0.70668 -2.8604 0.876804
-7.93327 -1.76803 -4.04661
-4.56803 2.22423 -0.528703
-8.71426 1.85239 -3.96817
-5.48189 0.654677 -2.85652
-0.434987 -0.734008 -0.163799
-2.08145 -2.67748 -1.28671
-2.0953 1.98942 -2.04633
3.61332 -0.0990927 0.943854
-8.49056 -2.21868 -3.895
1.53254 -0.250506 1.10096
-2.69332 -0.849277 -1.3357
-11.2189 -2.34276 -3.43657
-0.297827 0.581553 1.09133
-1.06635 -2.72592 -1.28683
1.64154 1.96275 -2.52147
-2.72778 -2.80158 -3.55617
-2.86006 -2.63755 0.127665
-1.37249 -2.78396 -2.39614
1.3406 1.97975 -2.10186
1.95332 -2.90962 0.544908
2.30791 2.00453 1.97926
3.09591 -2.49948 0.630641
5.65591 0.551715 0.949049
-3.99813 -2.80411 -2.53569
-6.64447 -1.81967 -0.208993
-1.84736 -2.11316 0.460142
4.62571 0.583598 0.952
-2.04414 -2.93836 -4.35262
1.72858 -0.391735 -0.548301
2.53469 -2.23878 0.974806
-9.57407 -2.12003 -2.55705
1.59868 -1.34401 0.976947
0.49612 0.622785 1.18243
2.5568 -1.13628 1.0042
-1.36833 -2.68352 -3.85972
1.31337 2.21824 2.62739
4.6756 -1.79214 0.681361
4.55956 -2.06983 0.98552
-0.0971085 1.91419 -1.7232
2.1626 1.67876 2.11389
3.11534 1.25868 1.02333
5.64843 0.180484 0.957451
-1.45547 2.17196 0.92349
4.62293 0.246348 0.962479
0.270371 0.161137 0.67352
-1.05487 -2.69918 -1.55716
-3.64992 2.0366 -0.286703
0.668748 -2.27601 0.50603
0.767506 -2.80195 0.506574
-5.07749 -2.71213 0.224113
-1.00497 1.97873 -1.57056
-7.43332 2.99716 -0.681756
-2.32275 -3.06037 -2.4127
2.56456 -1.71415 0.916441
-3.43975 -3.07559 -1.77671
3.61102 1.43596 1.03207
-3.09309 -2.94185 -0.615385
-1.60907 -2.0311 0.365584
-9.83523 -1.51549 -4.47902
-1.15583 -2.6785 -2.64161
0.981875 -0.647206 0.40116
-3.85134 -3.0926 -2.95932
-2.01566 -3.37045 1.12965
-1.69225 0.0856844 1.38913
-0.679971 1.28477 1.40699
0.419161 -1.89073 1.18571
1.46854 -0.786222 1.18148
1.48785 -0.522358 1.13863
1.44868 0.106309 1.24593
-2.43107 -3.05593 -3.06744
-0.492865 1.91057 -0.824799
2.2901 1.58822 1.42508
4.61994 0.425522 0.972219
2.33924 -2.14062 1.22289
4.63142 -1.53743 0.799795
5.25654 -2.76016 1.93863
5.51018 -2.5802 1.13812
0.196884 0.888069 1.43394
9.95754 0.0817633 0.98714
-5.79418 -2.9812 1.34162
9.92387 -0.946129 0.961361
2.59972 0.319559 1.00149
8.76618 -1.7281 0.771559
2.65248 -0.676659 0.827593
8.78737 -1.83646 0.826934
-0.522016 -1.96423 1.12916
2.64268 1.18924 0.921417
3.16687 0.834156 0.906536
3.27547 1.04779 1.081
0.959196 1.55544 1.55581
-2.08556 1.96441 -2.67416
2.53941 -0.0929408 1.04222
-2.80431 -2.82087 -3.57742
1.47698 0.580132 1.19732
1.47277 -0.480173 1.17768
-2.43459 -2.79476 -1.49519
8.2599 2.12061 -2.84667
8.41685 -3.26982 0.708288
11.6942 -3.30187 0.398186
11.8162 -0.25298 -1.75792
12.2622 1.68032 -2.54412
11.7288 -0.779832 -5.27011
11.769 -0.6303 -5.24485
11.6812 0.517803 -5.57578
11.802 -1.85818 -2.46692
12.1198 1.70413 -2.31583
10.9744 -1.70929 0.845866
1.33453 1.44913 1.64567
3.24625 -0.646551 1.58216
6.7397 1.96077 -4.20144
6.52665 2.0477 -3.95601
4.34871 1.40849 1.68572
5.53828 -3.39959 -1.72658
8.6532 1.86956 -3.24887
9.01138 1.88967 -3.13846
11.8663 1.69262 -2.49653
2.13501 -0.618984 1.61996
5.01212 -3.39987 0.963709
7.96805 1.95556 -2.94965
8.09387 -3.30124 0.314365
9.11596 1.94789 -1.28947
-3.27588 -2.79005 1.72398
10.5948 2.07061 -3.11971
10.3776 1.73089 -2.74234
11.8734 -2.91862 -1.183
6.6916 1.99318 -4.49606
18.1192 -2.51311 1.85583
12.1045 0.373309 0.715496
10.4467 1.69845 -2.06067
16.9748 -3.50929 2.35976
9.6659 -2.97743 -0.244057
11.886 -1.6414 -2.51371
11.9393 0.379221 -1.68834
1.18735 -3.16523 1.12945
-0.127209 -3.30818 -0.290653
7.69762 -3.14925 0.447849
8.73199 -2.98184 -0.110551
12.1459 0.946877 -2.29542
8.85947 0.156257 1.42114
0.923938 -2.87382 -1.01689
2.54502 2.45372 1.09186
2.04577 1.17919 0.776821
1.88576 0.957719 0.994428
-5.60063 -2.21696 1.39441
-2.67397 -2.70451 -4.65594
-2.54555 -2.83623 -1.82333
-0.0406787 1.3704 2.66703
1.51143 -0.930003 1.06514
-2.42321 2.04603 0.690899
0.433206 -1.33589 1.18883
1.85972 1.19439 1.0759
1.88994 1.17127 1.2219
2.3677 1.12069 0.719689
0.43838 -1.62072 1.16839
1.81739 0.750945 1.22374
7.68836 -1.55127 0.707304
5.17995 -0.610787 -0.0921863
7.70741 -0.663618 0.743744
5.6691 1.2804 0.974877
5.62797 -1.99506 0.779196
6.70922 0.346758 0.970213
7.74942 0.32819 0.860397
6.65162 -2.06369 0.732837
3.83938 1.45601 2.71879
1.89715 -2.66777 0.598964
4.6109 0.70928 1.0306
-0.745875 2.08782 0.444951
-0.400894 0.755402 1.16319
3.36316 -0.074374 -1.45732
2.65171 -2.34947 0.813029
5.36408 1.3007 1.98758
-7.76725 0.78845 2.03532
1.49635 0.409007 1.15324
1.54494 -0.0654882 1.07887
-5.38596 -2.93368 -1.34048
-0.604334 -1.23734 1.23984
-7.3595 -5.35916 6.38372
-5.82956 -0.516368 1.02991
-5.26541 2.08899 5.58644
1.83805 1.41953 1.1843
0.431743 -1.49962 1.15554
-2.67312 1.98372 -4.74475
-0.394068 1.87659 -3.43253
-2.70184 -2.89363 -2.11036
-2.3825 -2.82209 -0.697404
-0.503556 -2.7251 0.51076
0.427304 0.06441 1.22928
1.77152 1.00552 1.1343
1.21565 1.48972 2.83009
2.55957 -1.24624 0.982758
-1.34623 2.24228 2.74532
-3.97507 -3.19214 -6.41419
-5.58377 2.57687 3.80673
0.716133 -1.96994 0.860389
0.475474 -2.00712 1.09891
-0.620227 0.0831619 1.28815
-2.22011 -2.79388 -4.16384
-1.80952 -2.76983 -1.83806
-2.44335 2.07046 -2.04371
-1.12679 -0.537218 1.69372
3.26411 2.57314 1.42394
5.43716 -1.69254 1.32973
1.05893 2.98654 2.17973
2.10321 -3.27992 1.53436
7.98795 2.01606 -4.30645
11.3487 0.917451 -6.73512
11.3428 0.833417 -6.72654
11.6899 1.39201 -6.74936
-5.8402 1.14979 1.50686
-0.000119925 -2.88794 1.54424
-0.0783179 -3.21037 1.60707
6.25466 2.00312 -6.12386
7.07302 2.03091 -4.92572
9.96509 -3.2126 -1.33762
4.61989 -0.159579 0.937938
-12.4208 -2.6038 -4.86872
-11.7165 -1.88482 -0.58757
-8.49327 -1.35877 -3.34471
4.63264 -1.6817 0.792801
4.88219 -0.667971 0.293902
-0.614267 -0.187515 1.29003
-0.300541 1.92182 -2.44457
6.65228 -1.6488 0.786398
4.61119 -1.5238 0.866028
-7.60408 -2.47556 1.49046
-9.70987 -2.46636 0.455018
6.70088 -0.08691 0.896078
-14.2278 -2.19817 -0.837543
5.60408 1.78639 1.30573
7.69673 -2.38372 0.787372
7.80902 1.72704 1.14365
1.29635 2.0129 2.01225
2.78016 -2.73032 0.6314
6.68778 -0.232756 0.804245
5.65235 0.0229613 0.923643
1.11938 2.03466 -3.50596
2.3431 2.0537 1.36951
-2.66672 -1.53303 -2.99609
-2.8961 2.0518 -1.60104
0.944432 2.03318 2.0755
4.64562 2.09002 1.96236
10.821 0.600284 -0.0305194
10.7905 -0.728584 -0.00649345
5.76675 0.39135 -3.15463
-26.3334 -7.63327 39.2156
-1.65462 -0.277527 1.34218
-2.50343 -1.03312 1.53525
0.426244 1.43355 1.30209
-2.54636 2.06983 -1.66474
-3.233 2.06772 -1.68868
-3.40617 2.31358 1.28993
2.59656 -1.42962 0.92056
-7.64738 -4.375 -3.22691
-2.50277 -2.71217 -3.40785
1.51165 -1.94352 1.06602
-11.9504 -3.03807 -8.28162
-5.76292 2.04197 -3.11269
-2.55942 2.13399 -0.970011
-2.70448 0.0852054 1.43032
-2.70018 -2.39777 1.31992
-8.38763 -1.61684 -7.55141
2.72736 1.08088 1.09795
-4.00931 -2.9205 -2.41649
-4.64173 0.690978 1.50752
-3.22621 -2.33548 -1.39478
0.908915 1.04982 2.09403
-4.1635 -2.13891 1.59114
1.45302 0.480828 1.19469
-0.635317 -0.646945 1.29403
-3.55357 -0.966141 -1.30753
1.51287 -0.205286 1.11053
-8.01798 -1.7974 -6.06793
-3.79474 -3.03856 0.336535
0.531961 0.373862 1.14076
-9.09511 -2.35501 -3.52616
-9.30409 -2.54968 -2.4043
-8.06927 2.13546 -2.94654
1.49788 -1.66541 1.09139
-3.28824 -2.55767 -3.53313
-22.7766 3.2694 10.9193
-5.33405 -0.933895 1.33528
-3.73135 -0.475792 1.45442
-2.70596 -2.80609 -3.33512
2.58084 1.59603 1.61281
3.42702 1.27789 1.07991
-0.832006 -2.58644 -1.52781
1.67268 1.09844 0.979126
2.62393 -0.603607 0.905545
3.62155 -1.67277 0.819076
1.82186 1.42061 0.767991
3.61225 -1.1608 0.883318
3.5535 1.037 0.873927
3.51769 1.18531 0.900308
3.19804 0.877127 1.08434
2.31856 1.37073 1.07089
2.55523 -0.322235 1.0322
1.83227 1.33819 0.674242
-2.1669 -2.82727 0.758288
-7.7863 2.08868 1.65625
-5.81341 0.101658 0.357525
5.56695 -1.33669 1.14741
2.75138 -0.750388 -0.694557
-5.85147 2.0794 1.37605
1.77961 1.95011 -0.862622
4.66002 -2.59201 0.678026
6.69959 0.0463724 0.964078
0.900501 1.97567 -0.318228
7.78051 0.619735 1.01233
7.80576 1.40546 1.08235
9.82713 1.88872 -1.27421
11.7175 1.28392 0.0491201
-0.430626 -0.539301 1.55306
11.9385 0.985984 -2.6706
2.74822 -2.22573 2.2424
11.4076 0.865058 -6.13296
11.8868 1.38737 -1.21517
6.67179 -2.00401 0.891015
11.3682 1.31938 -6.19771
11.4036 -1.45776 -2.38451
8.83036 1.99446 -1.9862
-3.69524 10.3316 9.22918
11.6838 -1.76541 -2.74893
-1.05544 -2.83775 1.5834
7.76644 -0.432421 0.981207
-1.11814 -3.11175 -3.14387
7.76753 0.502142 1.0142
5.67082 0.914876 0.912964
-5.51329 1.79836 0.952377
2.48616 0.225409 1.13744
1.82163 -2.38002 0.645122
-7.23319 1.91486 4.7855
2.49669 -2.07394 1.03297
6.71048 0.595091 0.911462
-4.14892 -2.43612 -0.192222
-6.95725 -1.92705 -3.90922
3.11972 1.06942 0.605508
-6.02261 -2.59681 -6.56143
-0.993416 -2.75199 -0.668232
-1.01796 -2.73461 -0.826535
-2.38225 3.96592 -5.06778
1.49218 -1.51317 1.04776
-2.99563 2.09831 -0.840454
-0.724403 1.8999 -2.92603
-2.79523 -2.85417 -2.99251
1.56442 -0.131787 1.05661
-0.586947 2.02432 2.13418
1.07241 -0.733597 0.584195
-8.42997 -2.05171 -6.81747
0.461512 0.71758 1.22955
-7.70895 -2.63657 -4.13829
2.5926 -1.15791 0.953098
2.56908 -0.235561 1.01923
1.49041 0.0359855 1.14868
5.65568 0.259755 0.9132
4.61781 -0.548905 0.907762
4.60164 -2.26856 0.836216
-0.750184 2.00561 -2.40271
7.76332 0.0792327 1.10272
5.64198 0.00458705 1.00478
-1.37579 -2.79752 -1.53597
2.32737 2.01768 1.11189
7.71648 0.453497 0.758071
4.62414 0.376828 0.956269
5.64533 -0.594069 0.848262
8.71912 -2.39029 0.671197
10.9399 -2.97994 0.808664
11.0092 -2.08495 0.893429
-11.7245 -2.23664 0.10985
3.18216 1.99339 -3.54821
-10.889 -3.39489 -0.903315
-5.95529 2.02383 1.71685
2.46652 1.09113 1.77926
11.5791 1.06806 1.04353
6.59569 0.288676 1.52808
10.8197 -2.7602 0.590359
7.75456 -0.78805 0.557832
1.59693 -1.69875 0.956885
-0.730633 1.86593 -2.44783
-2.63983 -2.68621 -4.56025
-9.57421 -2.3842 -4.63937
-0.162761 1.85969 -2.68058
-1.19177 1.95556 -1.26303
3.60787 1.22304 1.03023
0.635167 -1.83662 0.971966
-1.6562 -0.172106 1.34793
-1.83844 -2.84701 -4.68565
-9.9652 -1.49506 -5.23579
-2.53068 2.08996 0.871129
1.57243 -0.935499 1.32085
3.59758 0.393615 0.994723
-3.55357 -2.63945 -3.97839
0.284112 -2.7827 0.526891
-0.886286 1.94656 -2.02718
-0.892044 1.94297 -2.43757
1.17385 -2.28086 0.482642
-0.800128 -2.80339 -1.34727
3.71005 1.07123 1.26155
2.5715 -0.437622 1.00958
3.22106 -0.904224 1.06257
3.80248 -0.773868 0.533673
2.68077 -2.209 0.783539
1.52002 0.466038 1.13847
0.402951 1.90763 -3.71553
0.0259035 1.86806 -1.9632
5.54253 0.761229 1.37706
4.11765 -2.54448 0.653655
2.45587 -0.971823 -0.888315
-4.89168 -2.39149 1.44716
-0.842878 -1.10792 1.39862
1.07286 2.43104 2.03172
8.09327 -3.5366 0.989721
1.92001 -3.16643 -0.709661
12.3403 1.04632 1.10688
10.0244 -2.78707 1.40733
11.0057 -1.50294 0.874436
4.36432 2.02622 0.476028
10.1632 1.81606 -1.97313
10.5176 1.81849 -1.29323
1.92744 1.97418 -0.089538
9.25059 -3.11885 0.174375
8.35061 1.20031 1.64034
3.32168 -3.07496 -0.948587
3.75186 -3.06664 -0.536492
1.69369 -2.98426 0.694214
12.1089 -3.09952 0.989637
3.93499 2.10191 2.48992
8.80511 -0.847208 0.872162
10.7684 1.85497 -0.753139
10.8643 4.77681 6.57195
12.1049 0.990929 0.980422
11.9241 -0.924293 0.577561
7.75266 -1.65889 0.248689
7.71589 -2.57277 0.481746
7.69398 -2.52222 0.908823
7.69631 -1.39753 0.715417
7.74447 1.20243 0.82133
7.69765 -2.03851 0.751851
0.0174505 -2.61728 -3.81236
2.11277 2.00603 1.97919
2.97524 1.22577 1.52737
2.57521 2.0065 1.3479
3.20298 1.72396 1.13808
2.54912 1.96248 1.87353
1.8199 2.07567 1.45386
1.46796 1.92939 -2.1477
-4.27791 -3.04088 0.121733
-1.44148 -3.04142 -1.294
-0.964983 -3.08792 -1.84486
2.90519 -2.3764 0.479005
0.380641 -3.04684 -0.0670235
4.57948 -0.048808 1.03214
6.71501 1.35169 1.03418
1.53271 2.05483 -0.103025
-12.5598 -2.50621 -0.503664
7.76769 0.237521 1.00691
-6.4332 0.856941 1.34082
-5.97987 -0.617047 1.61489
-0.459945 1.99392 -1.60075
0.17449 2.20289 1.44199
-10.6421 -2.70325 -0.741561
7.76002 -0.15223 0.922507
1.05307 1.13141 2.44689
8.71028 1.10309 1.19967
8.7732 -1.33594 0.792354
9.89732 -2.14583 0.87413
8.73078 -1.53635 0.686115
9.27311 -0.884243 0.729718
8.7581 -2.11316 0.762689
8.79469 -1.99585 0.925948
8.89797 1.68893 1.0438
7.73392 -1.50481 1.09523
8.78678 -1.77167 0.875574
8.89026 1.09142 1.13461
-0.341862 -3.05404 -3.20068
0.804592 -0.725895 0.695562
4.61845 1.02797 1.02417
2.56902 1.01391 1.05339
1.72501 1.6989 1.30807
1.63168 1.36171 1.49068
4.61403 -0.720943 0.89465
1.81043 0.815699 1.17502
0.28563 1.91064 -2.48964
-1.68375 -2.9521 -1.86994
10.845 -3.4562 -1.92367
3.03432 -0.997036 0.189144
2.6522 1.23157 1.63376
5.92321 -3.26285 -2.02332
10.0049 1.78831 -2.94687
11.688 1.77257 -5.36944
10.4198 1.83533 -3.16654
1.56812 -3.19595 -1.73816
8.88058 -0.441356 4.2532
3.97209 2.34873 0.340334
7.00672 2.04713 1.89183
9.37578 -2.70508 0.71094
9.54953 -1.09492 -2.06115
6.6343 -1.72334 1.22458
11.3971 -1.58963 -3.88094
10.7312 1.7523 0.666053
11.9392 -2.86693 -1.04667
-0.697347 1.70332 3.38239
3.93348 2.0222 1.43353
5.30679 -1.96515 1.84908
7.22863 -2.53795 0.496433
11.4592 1.88122 -1.08517
-3.2424 1.87205 1.83943
